# .PCD v0.7 - Point Cloud Data file format
VERSION 0.7
FIELDS x y z
SIZE 4 4 4
TYPE F F F
COUNT 1 1 1
WIDTH 1668
HEIGHT 1
VIEWPOINT 0 0 0 1 0 0 0
POINTS 1668
DATA ascii
38.316605 27.132999 2.9217052
36.724422 22.568838 -4.3847556
-4.5466166 12.203206 -70.03054
-25.375765 26.06036 -65.908684
-35.997986 -0 22.440781
30.125195 0 -44.293785
-8.3127451 -0 44.664497
-73.937538 21.587032 -3.3042631
46.367664 -0 28.60553
34.903645 27.132999 -36.951504
-60.955894 -0 29.128244
-55.417427 0 -21.544369
-60.610264 27.132998 -34.798508
-41.740078 27.132999 17.517994
20.60881 0 -41.100739
-20.585381 13.169372 67.395546
-72.447769 0 -6.1009574
60.028511 -0 2.5007854
-71.324493 27.132999 -6.4144783
33.314682 3.9818385 62.653122
46.856522 27.132999 35.155872
-33.992748 -0 26.517614
0.10832024 2.7666807 70.162415
-2.3677979 15.544333 -35.009712
42.896278 27.132999 33.836723
-38.050362 6.8494544 60.180351
18.208241 16.151627 68.005867
55.351227 1.9004601 46.586311
38.601051 -0 44.944347
21.887852 9.2702293 -28.288754
9.7447252 27.132999 -37.47472
56.317719 -0 31.739368
-15.753157 -0 56.602196
18.04327 27.132999 64.547386
-36.12693 -0 47.437492
50.566917 -0 48.229198
27.618328 3.711138 65.093231
34.922867 0 -19.910702
7.2511449 13.201847 -69.823242
-38.196739 -0 4.5393128
63.105709 0 -2.0189528
11.830981 27.132999 -41.052628
2.1968086 4.5692387 70.131874
47.224075 27.132999 7.0197563
5.9892516 -0 37.415859
38.593719 16.491179 -59.864967
52.292744 0 -16.157553
-6.8680468 15.777069 69.860382
-73.704735 25.479103 -6.5461178
71.600624 10.40039 17.803484
-6.1059346 27.132999 43.044571
35.052658 1.3789771 -11.256937
-33.756306 13.343416 62.442562
21.490686 27.132999 -45.079342
46.703964 27.132999 -8.1301727
18.619556 0 -35.295925
-25.381035 27.132999 -25.898706
-53.651867 0 -17.606903
-24.23073 0 -50.867954
35.374649 27.132999 55.479542
-73.88578 21.786552 -4.3498259
-36.607246 0 -36.354443
-51.538692 27.132999 1.7570038
-6.1519132 27.132999 49.788887
33.573608 27.132999 -17.861095
72.105309 -0 14.930939
-2.2846606 -0 35.295631
72.540962 25.535378 -13.953941
38.131966 0 -47.717896
70.499817 21.231113 -21.392538
-21.703707 27.133001 61.267689
34.042347 27.132999 23.952456
37.979553 0 -24.298981
19.0811 1.0866668 67.785866
17.488354 15.237192 -30.915159
-20.402647 7.4129477 -67.442963
-26.884562 15.926325 -65.368538
-16.514778 20.831696 -68.390839
69.345947 27.132999 9.1466312
41.041256 0 -43.251556
-43.581226 0 -33.999954
-2.6509964 -0 42.72683
-43.149925 0 -9.7144899
64.127266 21.948509 -35.039341
64.649963 -0 12.521804
10.233715 0 -37.308346
-9.6230793 -0 41.574696
23.138941 22.754511 -27.376305
49.10812 27.132999 -23.075291
-31.966362 2.2405343 17.681284
7.5863833 27.132999 43.352924
-9.6361876 6.2744789 -33.868164
-73.711617 25.149767 6.463479
45.164448 0 -6.5796747
-73.993523 18.220963 -2.1129198
-7.1160231 27.132999 -54.754028
9.0864267 22.098272 -69.631065
-68.667 9.7686787 -26.202065
66.824982 27.132999 -0.85201168
38.070602 27.132999 50.268623
-73.561272 20.829941 7.7949333
-58.992252 27.132999 27.086195
66.861191 22.266384 -30.109772
12.299719 0.13089827 -69.181107
0.1330889 27.132999 64.082207
68.363625 -0 19.106892
-20.5776 21.937366 -67.39756
69.018303 12.341018 -25.356636
38.12944 18.598764 60.134453
-43.164669 0 -8.1766272
5.5151286 13.296164 -69.961311
-22.506533 -0 30.998644
-73.759552 23.156843 5.8880124
-27.471525 0 -44.220619
-14.136445 27.132999 -38.707855
-56.265114 27.132999 5.2292013
6.8853674 2.1552672 -69.859093
-35.161514 21.018311 -61.737221
43.804661 0 -24.092024
-19.937599 13.769476 -29.555897
52.278297 27.132999 11.375982
71.239944 8.9429903 19.052338
-18.795944 20.291094 -30.221897
60.254791 -0 22.083809
24.512094 -0 64.34433
-48.556553 27.132999 -10.068505
17.382113 27.132999 -55.126289
6.9048386 22.243059 -69.857635
-9.8496923 11.46442 -33.81279
-34.872173 0 -54.00148
39.198376 26.964748 -59.514004
-54.892361 10.642523 47.064533
19.439257 27.132999 -37.507717
64.702377 27.132999 -32.350658
-59.040611 -0 28.469275
-26.843563 27.132999 38.749935
-56.929695 4.8457532 -44.846428
18.442678 27.132999 -37.313644
46.110798 0 -45.101128
62.73111 27.133001 1.7644259
-29.281759 14.694037 64.440399
24.726114 0.65331453 -26.101217
-50.657913 0 -32.913818
20.609238 -0 49.388313
50.296669 27.132999 38.372765
58.628136 27.132999 11.931922
-10.560668 7.3389626 69.43779
-17.692762 27.132999 -48.941422
4.6440606 0 -64.853569
-33.159584 8.2955093 15.579756
21.616905 10.761862 28.475296
59.618233 0 -30.756418
14.902934 0 -55.107357
-6.2838516 21.361151 34.568554
-15.702203 19.177176 31.767754
53.566444 -0 27.695169
4.8264451 27.132999 -57.551643
-69.015411 17.027634 25.363911
-51.02755 0 -45.025345
45.654823 27.132999 -32.434654
43.804325 -0 21.441441
-48.154076 0 -15.252905
24.909704 0 -28.968626
21.182032 0 -53.317879
-23.019119 -0 39.119888
-50.803524 0 -39.729717
71.17984 0 -11.533677
37.003754 27.132999 44.510048
-66.759377 6.5103579 -30.306818
-7.5753651 24.941668 34.335152
4.6621366 27.132999 62.823448
-70.547485 27.132999 0.27669191
55.914833 27.132999 -41.904739
72.948303 1.7880279 11.891577
55.380806 -0 27.93572
-25.799446 0 -50.501244
43.179527 -0 28.748123
-13.075655 -0 41.232418
70.975998 0 -11.234948
45.119698 -0 51.497036
16.727991 11.640004 -31.293312
-7.2151518 -0 67.90744
-45.475288 22.187653 55.363281
54.63369 27.132999 -32.172619
23.942123 25.99781 66.384003
-42.065987 -0 8.3280621
-57.928028 16.921333 -43.673515
-49.110428 -0 51.468407
67.975693 11.29721 27.784313
-36.538509 1.1017895 5.5992713
-1.8670743 18.117664 35.033463
-73.660423 22.149651 -6.9430065
-33.747192 24.098974 -62.447132
-36.607712 10.331569 -5.1639309
28.614273 27.132999 -30.898064
73.995689 23.286572 1.9839752
-34.557308 24.238935 -12.558019
-28.665039 -0 49.202621
-31.069271 27.132999 22.412085
-13.778532 27.132999 67.853279
15.391821 27.132999 54.204571
19.783518 10.428669 67.603607
48.970337 27.132999 -44.775421
73.87606 6.8577971 4.4893637
9.1711798 10.963265 -69.622185
26.191277 10.326365 -24.789108
44.057938 27.132999 -17.121498
-3.364996 27.132999 52.628433
-33.597633 0 -61.493191
-61.911293 -0 37.849037
-40.767586 -0 51.820572
34.441315 17.628746 62.098724
0.2576986 -0 51.918221
-42.493099 4.3761067 -57.443043
-20.830578 9.9818192 28.998966
-27.139423 2.2620525 -23.851143
-4.6085854 24.024895 -70.027771
-3.5148282 -0 58.493282
-66.74646 -0 28.897261
-48.278915 -0 45.714878
-63.3951 27.132999 19.902443
33.358521 27.132999 -53.495384
28.285566 27.132999 50.226654
-10.451457 27.132999 -68.567863
16.58308 0.64270061 31.36063
-17.940586 21.221264 30.684299
27.146786 14.212339 23.843481
33.458759 23.886906 15.00127
-62.611023 -0 5.9747486
-48.387299 27.132999 -8.9443684
-47.031971 -0 7.574142
-23.865398 19.047005 26.81118
-68.411232 3.9190903 26.78746
-64.498611 0 -11.652961
-51.928078 0 -48.329006
-47.879635 -0 16.218704
-37.056278 0 -53.268677
-2.8417869 3.0764012 34.974133
-64.09565 12.30079 35.091869
-12.574697 27.132999 -33.383072
-38.889854 -0 1.9155471
64.783157 -0 24.356731
-55.086384 10.115582 46.86232
27.001253 7.8523154 -23.994961
60.232727 8.2388372 -40.780163
21.380398 23.892942 -67.165962
44.988579 -0 47.76265
-71.441078 15.860142 18.355919
40.039459 27.132999 -1.6770318
-2.7014492 27.132999 41.027313
-10.836193 27.132999 63.632607
-41.88517 27.132999 0.59436214
-1.6205029 27.132999 -49.34663
19.545418 27.132999 63.334934
-27.524231 -0 43.408104
-55.490898 14.313769 46.44075
-2.4519694 6.7622213 -35.003395
-8.8551178 15.501593 34.059502
-27.996162 -0 51.88208
46.109428 27.132999 46.195328
41.639717 27.132999 52.670425
28.825352 12.110094 -64.619522
-56.466408 7.7315316 45.360649
-48.339249 22.362688 53.130192
28.065784 5.6026626 22.86615
-33.626656 27.132999 48.258362
-0.11795261 -0 46.06739
-65.047531 -0 9.7127018
-7.4302301 6.0567164 34.363716
36.27924 18.930082 6.9386697
-36.520302 14.872789 5.6981297
67.847679 22.761896 -28.059723
31.903387 6.3993583 63.308075
30.905722 10.957604 -19.29788
-69.765923 0 -7.8705173
36.475868 27.132999 17.415112
50.344833 27.132999 -17.539375
-64.138275 0 -5.5792952
43.464371 0 -38.358986
-15.484928 27.133001 62.972435
-42.728542 7.1707625 -57.286285
-6.3272018 -0 67.193428
-73.258575 15.685026 10.034191
72.813934 12.86249 12.620899
12.557175 -0 33.347095
73.428436 11.45663 -8.9041824
-24.383413 0 -41.174854
67.641945 14.335625 28.49139
-36.07959 1.0400108 7.8240933
48.37027 27.132999 -38.284309
-65.109734 0 -19.753016
-25.343285 11.980632 65.920303
68.533524 -0 19.490276
19.852365 27.132999 -58.390453
2.0314307 -0 52.176857
6.3016729 27.132999 47.122997
55.696953 -0 29.7757
32.9814 27.132999 -58.908142
32.729347 27.132999 62.345314
59.12278 -0 39.020157
-54.00135 0 -46.973709
-35.259712 27.132999 54.098553
68.314613 13.3101 -27.008608
-73.265182 15.602485 9.9901676
72.281425 14.657851 -15.143639
-42.091019 27.132999 -24.196825
-65.089256 27.132999 -0.75843316
-34.003586 11.154206 -13.856176
47.291348 0.35153574 53.978352
0.22852436 12.124213 70.16066
51.95063 27.132999 -13.912617
57.497093 27.132999 -37.086884
-14.504875 27.132999 49.229923
-14.45162 16.032503 32.294594
1.1466733 27.132999 35.803936
50.634388 -0 10.639855
-34.231251 3.5117896 13.335357
-19.893335 -0 60.34861
-44.991573 0 1.0682482
-72.828995 27.132999 -9.4188614
-3.7992587 27.132999 62.382141
73.962677 4.4992747 2.7962933
-18.246367 22.234426 30.518993
63.304176 27.132999 14.397926
-23.165106 27.132999 -41.632275
-34.722256 0 -37.623306
42.642456 0 -21.979071
-49.536079 27.132999 -37.889809
-23.477249 4.3329277 27.119595
-36.562901 -0 60.5382
-40.190319 -0 24.400146
21.225624 6.4186263 28.735878
59.027096 -0 10.586521
-36.947983 1.8583821 2.0631862
1.7156514 27.132999 47.750401
38.03241 27.132999 -35.719097
44.708538 25.858335 55.913628
-46.588112 -0 16.903461
67.569969 9.5684557 28.642403
-51.856522 6.9309602 50.063614
-67.758461 18.362164 28.246914
31.518665 12.086996 63.486572
-39.251446 27.132999 -34.29171
21.191698 27.132999 -52.808632
22.330404 27.132999 57.920906
-24.98724 4.7629018 -66.044807
-30.050243 -0 51.004971
-58.514565 -0 16.569874
3.427403 25.84935 70.080643
-7.8638887 27.132999 59.962299
-5.0401564 27.132999 -39.480328
40.949661 -0 22.126249
39.575943 27.132999 22.166225
66.791794 0 -10.581219
58.565968 27.132999 17.169088
-60.253677 27.132999 7.7093816
33.226028 -0 41.815819
-1.355141 27.132998 -35.628468
53.77882 -0 39.195042
-5.1239505 -0 55.269043
-50.679314 27.132999 -15.946046
-50.525219 -0 44.991142
25.265856 17.616905 -65.948029
-25.553564 12.831625 -65.845032
-47.573997 27.132999 5.6717253
-14.123544 4.5737691 32.423504
39.476723 27.132999 58.679649
46.821613 27.132999 -54.25835
35.560062 8.4735584 9.7356701
-10.370414 0 -59.893085
10.129092 27.132999 65.68441
15.589881 10.955739 -31.815863
-26.911572 8.6033516 -65.358871
-63.543446 2.9328859 35.989189
21.776005 0 -66.852127
36.280396 27.132999 -18.6749
-54.616573 -0 16.581444
-57.364281 -0 6.5955596
-60.54113 27.132999 12.689262
-58.582275 27.132999 -32.337997
42.941223 27.132999 31.550079
-53.095306 0 -0.82361478
42.805859 27.132999 -40.364738
-17.044392 27.132999 50.839546
-37.610825 -0 1.4654977
-38.714409 0 -2.6906343
12.509116 17.857107 -69.146461
43.734268 19.094542 56.606613
-34.555443 27.132999 -17.205223
28.603361 27.132999 -40.846657
4.6082888 12.259128 34.808216
38.495171 3.3792338 59.922165
52.33733 27.132999 22.217783
-30.878082 27.132999 29.838682
20.331436 0 -54.664623
28.832878 27.132999 -37.890305
-7.96246 27.132999 -66.101723
-73.923645 0.52977896 3.5848498
41.084351 0 -42.333694
36.886642 2.7127879 2.8594785
-30.227962 16.87999 -64.039383
26.159496 1.7704283 -65.628113
29.071598 27.132999 45.188343
-2.6137767 5.5789595 34.991249
-26.361359 4.22089 -65.555847
52.075142 0 -21.780876
22.332922 9.9849901 27.971603
-38.912018 5.6622581 -59.680218
13.809179 10.257011 -68.931396
25.573128 27.132999 -40.325371
-54.37328 0 -28.406418
62.243256 8.7938795 -37.973557
48.834797 -0 50.777828
62.366035 7.2438021 37.796459
-8.5125151 -0 47.000496
4.7729416 27.133001 -69.504539
-8.613656 -0 47.87738
12.326166 1.5377563 69.176727
61.543541 27.132999 13.387005
70.094513 23.615019 -22.543343
16.18067 0 -65.449921
60.174683 27.132999 -22.882666
-46.453468 0 -7.1246772
-29.514837 27.132999 23.592842
19.761353 2.1799419 -29.662643
-58.598 0 -22.185492
-61.255165 27.132999 -13.987278
-25.82679 2.4883907 25.125015
-34.427525 2.4575129 -12.883588
24.147556 0 -55.601639
-26.951588 7.8454132 65.344543
-65.159271 10.695441 -33.287663
-11.180153 -0 69.003868
-56.153229 -0 27.925779
-18.016993 27.133001 33.372047
-67.952339 27.132999 -0.77370518
39.834702 0 -33.790886
6.0023828 11.453104 -34.614975
-36.093773 20.228354 7.7681894
1.7288196 0 -46.956276
-71.707207 18.568174 -17.432404
19.558216 25.12182 29.780714
-59.989883 27.132999 -34.699883
-16.821381 27.132999 -45.20084
-13.845349 5.3317757 -32.53281
-42.29026 27.132999 -20.125885
33.616814 15.706117 62.512573
-18.231161 0 -67.511826
-34.515602 12.33915 62.061436
63.858822 27.132999 7.2889924
-28.762726 3.7877162 64.644104
-3.6126323 6.7054658 70.072357
9.0513563 0.94647038 -69.634735
35.570374 27.132999 57.55468
21.817921 16.446566 -67.038429
-18.84893 0.84395331 30.192972
-62.607285 -0 23.320978
-37.265316 27.132999 9.9680729
6.8677831 26.436609 -69.860397
-16.285715 27.132999 -65.799591
0.883807 10.10042 35.06908
-49.176865 16.693687 -52.440567
-4.42414 -0 64.487076
-25.728107 -0 47.582031
51.070694 26.688961 50.78545
25.819233 27.132999 28.028362
-56.585548 27.132999 13.919977
25.271103 27.132999 64.729012
59.299149 25.932415 -41.987915
50.382866 27.132999 1.2167668
21.767321 27.132999 47.370308
47.019699 0 -50.420406
-66.027603 -0 31.018547
14.626809 27.132999 52.423729
44.252926 12.798891 -56.237701
48.453156 27.132999 2.6822548
46.774746 27.132999 40.429459
-42.679119 -0 52.229141
-43.812611 27.132999 18.937958
-57.48473 27.132999 -37.941631
16.58074 0.88537079 -31.361717
7.1888065 -0 68.411201
45.613918 -0 49.505913
28.972725 27.133001 44.116402
-22.840818 16.825388 66.740257
-52.189953 -0 26.884716
-28.12084 25.157764 -64.896019
-38.230194 -0 13.55309
29.195837 -0 45.577801
-36.217285 3.1390393 61.185898
56.033749 15.186631 -45.840874
10.801524 1.5673423 -33.550613
-12.875216 4.4015083 -32.887428
-24.37521 0 -54.102921
26.249672 27.132999 64.271736
46.408482 27.132999 42.450287
-73.833176 25.545786 5.0042195
20.20155 7.4417796 -29.391605
44.137596 27.132999 38.79372
58.049873 27.132999 -2.7034962
-30.322636 16.655123 -63.998837
24.756634 0 -30.0756
-39.258568 0 -50.278503
-15.800255 27.132999 33.39436
24.47842 0 -55.425911
69.744354 1.612704 23.511612
36.999962 26.113085 -0.85942036
-23.052017 27.132999 56.929062
-66.635765 11.911429 30.546062
-8.3984585 27.132999 -61.929176
28.049274 9.5536232 -64.924103
23.005613 15.591764 27.477474
20.869984 27.132999 43.358749
-20.375566 17.544645 -29.283291
-23.400616 27.132999 -57.911125
-15.455277 6.4999342 -31.873512
17.000528 24.06115 -31.159542
-6.6115723 5.7681665 -34.514503
-17.44068 0 -66.045547
53.420906 -0 18.198694
1.0733351 16.476566 -70.1483
-23.511354 27.132999 -38.389885
-56.259819 0.18412448 -45.589947
65.243652 27.132999 -15.662661
-33.812836 27.132999 -27.962025
-72.381531 21.054155 14.684751
-44.262955 27.132999 -16.087757
-27.709196 27.132999 41.248032
-70.705338 25.763634 20.75857
60.799522 27.132999 -31.408451
17.61886 27.132999 -30.910212
-0.66118634 4.5723166 -70.154335
-33.482559 9.2204762 62.575211
-45.268353 8.7063532 55.515438
39.481022 0 -12.69999
40.055122 27.132999 27.831606
-40.163166 27.132999 -5.6694489
-7.8306656 1.7276454 69.762558
-29.079336 20.925062 -21.700335
18.475569 4.7028518 -67.942986
-36.837425 19.639095 3.4104104
-36.651447 14.420296 4.8729916
64.837273 5.5912828 -33.859699
-5.4370213 11.367594 -34.697533
-70.915642 13.348895 -20.109777
37.696121 0 -4.2507854
7.5411873 0 -63.956085
-73.303215 1.1802729 -9.737215
24.395344 2.986599 -26.381947
-35.576115 21.458736 61.529114
52.118866 0 -1.6762375
-57.884689 1.1876552 -43.724781
-52.030094 0 -15.190069
-39.822281 27.132999 2.8673811
-21.426355 4.7068172 67.152573
-41.885029 0 -40.135647
23.140688 27.132999 -64.778168
-58.301659 18.938608 43.231537
-58.136665 17.870903 -43.426708
35.490192 22.31653 -61.572243
70.911064 11.837852 -20.123905
1.5275681 18.889835 -70.141663
73.002213 12.625074 -11.599015
-17.121639 0 -62.577572
-41.251003 0 -2.8119936
24.591873 24.636333 26.216883
-3.0988488 25.198586 -70.095352
-67.950943 0.41493315 -27.840969
32.33651 0 -25.97575
-53.439583 27.132999 30.72925
-37.259716 27.132999 -22.889116
53.319977 -0 12.614635
45.101616 27.132999 -49.626984
1.0498893 -0 64.698929
-64.627197 27.132999 -1.8462117
-7.1900177 27.132999 38.264023
-61.437187 10.306831 39.136261
16.631752 25.257076 -31.33802
20.631123 18.051472 -67.383675
37.235146 27.132999 43.603897
73.958382 14.121064 2.8831511
-22.767431 27.132999 -48.539764
-37.003666 3.6707625 0.63256752
45.892021 0 -39.950775
-66.244209 -0 20.518213
-16.680229 27.132999 54.199921
66.247574 -0 21.338894
-49.395561 18.96298 52.252007
4.8762836 27.132999 -59.74366
-17.589645 27.132999 -66.746086
69.90889 27.132999 0.27373669
47.845963 24.005615 53.529457
29.845026 0.33127296 20.747187
-41.878868 27.132999 -55.558449
-29.177727 12.459986 21.583946
4.1435795 0 -47.67691
53.924271 0 -33.287514
-63.821087 27.132999 -13.975895
49.34272 27.132999 20.288187
12.93993 1.817167 32.864296
-67.971931 21.67708 -27.792912
-59.623772 27.132999 1.345212
50.159523 27.132999 -29.583937
10.001058 0 -62.624451
27.693556 24.448696 23.274364
-72.112312 24.460642 15.833615
26.176682 0 -41.898022
30.466269 17.889982 -63.937309
16.779507 0 -52.93309
-6.9827995 0 -68.024422
-43.610306 27.132999 -18.101292
-13.587217 27.132999 36.567802
-73.985085 1.9673793 2.3437521
-39.324524 27.132999 -48.31076
-29.292065 5.3843279 -64.436356
58.910404 17.117678 -42.478497
-50.394455 27.132999 23.687233
-21.398678 27.132999 40.08445
43.965282 24.668058 -56.442299
-39.331787 27.132999 -50.669907
-57.781631 27.132999 -19.484861
-28.890669 27.132999 34.467243
35.256001 -0 54.159836
56.338509 27.132999 18.087358
-68.622124 6.1022096 -26.30479
30.170996 24.612003 20.316292
-41.641953 0 -2.1961968
-36.347179 18.513618 -6.6280403
-22.28124 3.9056976 -66.903374
35.302883 8.5946417 -10.533463
-28.463732 -0 36.184742
-73.660698 4.2559662 6.9406438
-1.9601004 0 -46.093285
43.233395 27.132999 56.787712
39.119198 23.800478 59.559967
9.6073227 27.132999 69.497498
-66.997276 2.3408968 29.844049
0.70339715 0 -44.881901
28.409859 0 -27.722786
-43.623863 21.524601 -56.685143
-47.980278 0 -21.639858
-5.8754101 11.051715 34.635918
48.354794 0 -19.599215
26.484322 -0 27.964819
24.320925 -0 63.036102
42.371468 2.2758961 -57.524021
43.851509 0.96206534 -56.523216
-73.833839 4.482511 -4.9961634
14.811264 -0 34.079845
-35.178699 27.132999 11.806498
53.187794 -0 17.808954
-28.047886 -0 62.964325
-40.500214 27.132999 -24.251282
46.096554 27.132999 8.4849663
-13.246715 26.101223 69.024437
69.72419 6.5345001 23.567387
-70.471519 13.73911 21.479877
37.419456 20.460247 -60.536007
-52.455997 0 -14.094772
-39.768078 -0 41.966812
37.338493 27.132999 17.34412
0.25824851 0 -67.750214
35.629894 26.579556 9.4930859
-40.605698 27.132999 -48.475861
-68.654419 -0 3.3234253
-16.020557 0 -54.868927
-71.679642 27.132999 -5.365345
4.6935172 -0 36.112709
-36.998909 19.213726 -0.92376959
-19.766644 27.132999 46.339066
36.041008 0.22209923 7.9761419
-71.440651 25.535564 18.357403
-49.896645 0.41163608 -51.819969
-36.40992 10.753813 6.2975059
30.529581 -0 26.063181
-59.398411 -0 13.917289
-51.729084 26.422512 50.180672
-55.025154 24.602961 -46.926132
-72.737869 11.848385 -13.033739
-6.5325165 -0 59.059185
71.487625 21.144684 18.194731
63.94355 27.132999 -5.7146506
-5.9731488 14.570773 69.927139
-19.651739 7.9321795 29.726357
21.376297 27.132999 48.257622
69.483986 7.0231247 -24.18848
-42.319592 27.132999 -32.002758
-9.647666 0 -57.570915
56.835358 0 -23.719391
15.912468 27.132999 -65.089905
-36.146782 8.1407242 -7.5442829
44.803394 27.132999 28.392788
47.618629 27.132999 43.982922
-26.176182 23.869038 -65.622139
-47.144836 -0 23.674189
6.3905554 21.848946 -34.550957
-11.536462 5.3798108 69.306015
-53.755722 27.132999 -17.594669
-35.162228 27.132999 -28.375427
59.507401 0 1.3310108
-9.208128 22.889174 -69.618317
60.264771 -0 5.7709179
36.762432 5.3076611 4.0570121
-38.819363 7.3299389 -59.734001
45.608925 -0 24.949896
28.03059 1.5431584 64.931435
-43.818108 27.132999 -45.378101
-44.706524 27.132999 -28.350817
-23.005428 7.3199167 -27.477615
23.767139 -0 59.636593
-37.713795 7.9622049 60.375706
-2.9512589 7.2620792 34.965916
37.008827 2.4960792 -0.31677276
-36.753517 9.8201876 4.1338825
-12.468382 -0 49.500015
-18.84408 24.666269 67.847366
-73.453262 2.4562962 8.7229462
-27.684633 27.132999 47.992615
-69.419785 7.3093596 24.349524
17.777683 27.132999 -34.336777
-18.150616 27.132999 35.494423
7.450551 -0 56.732025
-71.372238 16.208838 -18.594292
-10.794306 2.0596223 69.406235
26.563267 -0 35.444878
2.7562983 12.702584 34.980545
-72.467918 8.4200811 14.288794
33.441315 27.132999 -24.999029
51.911594 22.884323 50.013031
2.6653767 20.444284 -34.987373
-34.704391 14.711853 12.189056
53.401417 27.132999 -25.493181
18.461819 8.9304476 30.402523
14.331767 -0 32.475227
-47.994438 -0 51.28265
0.23414287 27.132999 -58.62709
-24.876762 19.423016 -25.971415
-54.722977 27.132999 29.752197
-22.934662 27.132999 -43.314674
53.186661 0 -6.3222198
-69.962852 0 -10.812634
-33.840324 26.230371 14.205365
37.061714 -0 15.130948
37.355324 0 -0.35488641
42.046211 0 -2.9035077
29.67452 16.452469 20.962389
-47.441719 8.0361624 -53.856651
14.463552 0 -34.08955
26.190006 27.132999 38.758446
10.102978 19.111427 -33.747101
-30.444656 12.585973 -19.947323
8.4532967 0 -39.507244
-54.685139 27.132999 -34.739834
-25.588655 20.897026 25.343758
-61.112476 4.1541901 39.593788
2.1348007 1.984274 -35.021473
-68.445122 0 1.3108275
17.597179 -0 56.924423
-44.414795 27.132999 -21.409462
65.19397 16.287043 -33.225521
-39.815804 27.132999 -54.284256
-45.95763 22.235792 54.996811
71.721565 24.876398 -17.375736
-35.654968 27.132999 26.453224
69.173073 22.443703 -24.968399
-10.89624 5.3864636 -69.392471
-71.158211 10.417569 -19.335342
66.89164 -0 3.7876945
-8.8681183 27.132999 53.34201
44.560307 -0 41.897049
-58.414082 23.823215 43.098537
2.5111384 26.681221 -70.121666
-44.634617 2.0915484 55.966209
-5.0212364 15.406336 34.753525
-74.024261 13.772973 -0.28266343
66.957298 27.132999 10.353199
-6.2831979 0 -37.879269
-36.561203 -0 9.3468685
9.0148487 27.133001 -40.453522
43.955059 27.132999 -55.746346
-45.327908 16.608715 55.473076
-10.837565 0 -64.436691
0.97328174 0 -52.599041
56.388988 0 -17.182472
11.180363 17.184456 -33.440136
-17.541233 8.8827648 30.888664
-66.913879 27.132999 14.432281
-73.71962 0 1.334708
-64.093216 27.132999 -25.440121
13.665705 -0 64.390053
27.417795 27.132999 48.282822
38.451492 -0 16.382032
16.94038 27.132999 36.80117
-14.182952 16.561838 32.400158
46.602081 0 -48.709724
-10.711591 4.0134892 -69.417404
-25.705389 -0 59.630463
28.354877 23.038662 22.545273
48.551064 3.1538329 52.958744
-35.678478 5.0874004 -9.324317
43.262283 1.6578878 56.930923
-65.656372 0 -9.0763359
9.4286613 -0 33.96748
-43.035534 27.132999 18.186487
-72.330612 5.1975403 -14.918177
73.540062 11.977313 -7.9771266
-73.292587 27.132999 7.0585661
45.349453 27.132999 -51.982063
-65.061859 0 -31.319927
15.015878 17.805115 68.696442
-8.6851454 27.132999 -59.142986
-52.025906 6.2859893 49.908024
17.214058 0 -51.242188
11.520864 0 -43.550503
-3.9374256 25.007906 34.878433
50.788624 27.132998 -42.579655
49.813873 -0 24.301111
70.03717 27.132999 3.2896595
26.582546 -0 40.418724
38.613152 -0 31.710836
19.742058 27.132999 -34.966625
-52.252228 18.947275 -49.70013
38.932739 12.382159 59.668186
-17.585058 0 -63.419315
-53.983871 27.132999 10.477344
-5.9248462 27.132999 49.623917
-30.582603 27.132999 -42.661419
53.890888 0 -16.138657
-29.282856 13.105518 64.439972
26.404573 8.1920834 -65.540367
-5.9501524 27.132999 -55.147884
-43.756245 27.132999 9.3286266
-27.687519 27.132999 45.534649
-29.578171 10.769129 21.084002
34.065762 26.139526 13.713934
70.660858 25.307026 -20.895784
-39.968117 0 -14.204891
-69.455925 0 -20.981798
-8.6451664 13.045916 -69.677261
-36.90659 2.4930565 -2.6185708
13.318943 27.132999 49.8596
-22.525517 9.4259357 27.83436
-64.976151 4.1693501 33.615532
29.649029 -0 59.078186
33.206776 20.03367 62.703194
47.534615 0 -43.713181
33.714981 8.3554583 14.468644
-7.3806601 27.132999 -37.483292
-30.315594 0 -43.417686
69.907501 27.132999 9.624382
-32.58992 5.991498 -16.62541
-5.8715019 21.223017 34.636562
6.3235397 0.42362553 -69.901001
56.474697 0 -38.868359
-36.594463 27.132999 -50.40876
-17.801411 -0 65.844704
21.820366 27.132999 -32.996731
22.788342 -0 54.851913
57.312916 27.132999 26.282204
-19.578321 0 -63.664143
47.061279 27.132999 -14.819933
-58.052399 0 -11.222947
-32.058868 0 -61.56839
-12.430855 27.132999 -53.264465
46.343327 27.132999 -15.777173
-71.118889 3.3884439 -19.471493
59.931164 1.5469903 41.186832
-34.573296 17.29105 62.032475
-22.235697 13.096171 -28.040884
-60.557396 0 -32.053543
-25.862202 27.132999 -52.147549
49.901825 27.132999 -2.6629934
45.268692 -0 6.1581802
24.770439 0.063329801 -66.115166
-35.010185 16.474232 -11.374435
-68.136337 14.026018 27.416622
-15.266815 4.7308764 31.954231
0.91969335 10.635259 35.068554
53.323105 27.132999 -39.536514
67.189255 27.132999 6.8902359
53.298084 23.844193 48.683083
34.996243 4.4646406 11.413006
40.501785 -0 18.005714
-60.023888 27.132999 -4.6292949
-53.672268 27.132999 -6.1660428
-44.484005 1.7462262 -56.073334
44.653683 0 -10.693503
-70.534363 27.132999 -13.132705
12.600287 19.548277 32.985729
36.987244 27.132999 29.35717
-33.143967 0 -41.478119
47.463917 0 -14.909874
-68.543076 0 -17.319811
48.786713 0 -51.199574
21.253794 9.7134171 -28.717117
68.416519 4.7640882 26.775364
-39.514938 17.809223 59.330265
-62.206886 27.132999 -34.376602
72.225426 20.277775 15.387211
-67.697205 24.487606 28.375435
63.946091 17.029228 35.340363
54.650612 26.270863 -47.316475
-74.026703 19.548464 -0.13680214
57.817802 0 -7.8270845
62.375179 12.653345 37.78326
-17.01486 -0 39.773521
16.722437 0 -54.614281
67.497917 0 -0.98434973
41.997276 16.119167 57.773151
72.139153 6.3366747 15.72768
-13.717438 18.913109 -32.583073
35.366436 27.132999 -20.278957
36.951424 12.077181 1.9943843
30.820835 27.132999 -32.591923
53.744827 0 0.39111182
-31.194195 25.8151 -18.881447
-62.3433 27.132999 35.328098
-50.843624 27.132999 45.488247
27.539412 27.132999 -26.227392
-15.221187 27.132999 63.596203
-15.152517 20.626812 32.003185
17.021658 25.626762 -31.148958
-73.578156 18.444519 -7.6498976
37.5275 -0 20.110548
59.298744 4.6557231 41.988426
-35.251244 3.2049663 -61.692184
-34.595695 17.946772 -12.461733
30.784243 10.212126 19.473242
60.862877 27.132999 14.304956
52.312267 27.132999 39.370651
13.339529 24.2584 -32.72142
53.775135 27.10648 48.216644
45.880463 27.132999 -6.2965326
41.879379 3.9159589 -57.851646
-64.682297 26.34343 34.117176
61.085545 -0 27.192657
-11.990801 27.132999 -53.651405
-61.060783 11.874716 39.663494
61.257446 27.132999 29.600605
-26.129812 0 -35.469711
-62.254539 20.792971 37.957283
13.926042 27.132999 -35.75695
13.852361 0 -35.474674
-32.494854 21.04738 16.795626
-60.203918 27.132999 18.463997
-15.905165 0 -59.799332
17.543289 0 -51.849007
51.779686 27.132999 43.925514
-7.5815897 21.817635 -69.788643
-52.644447 7.2030048 -49.322189
52.018856 27.132999 -32.600235
45.397648 27.132999 34.651909
-31.050926 17.027288 -19.08827
48.591442 -0 14.425447
-2.6474032 -0 39.764942
-60.822792 27.132999 34.990658
37.008842 7.0425911 0.31581137
-16.168005 27.132999 -45.260994
-32.131138 22.546284 17.407516
36.98246 27.132999 42.510239
-6.7887354 10.721514 -34.485283
37.995422 27.132999 -39.67849
69.399101 15.714354 -24.4014
-70.301834 0 -17.645111
-31.297127 16.214975 -63.581459
-33.181061 8.2319775 -15.538224
21.124434 11.536951 28.803268
-13.627904 -0 67.961014
39.565346 0 -2.6200571
-65.668625 0 -25.780964
-62.879501 27.132999 35.334843
39.998199 27.132999 -56.66761
51.67775 5.9972692 -50.227825
57.839859 0 -32.091858
-16.141006 0 -40.665302
-36.439636 27.132999 15.58334
11.409918 12.183764 -33.373192
-38.305351 -0 1.3716524
-44.772457 22.00289 -55.86816
33.803581 27.122835 -62.418831
-73.994102 14.150395 2.0785408
-33.005333 27.132999 -40.745934
-12.292124 27.132999 39.971935
8.0088367 27.132999 -61.243912
44.961475 8.0726871 55.733711
-51.142811 0 -30.58321
-38.434219 -0 41.5774
-46.588806 27.132999 16.073517
-61.551643 0 -4.0695562
40.951302 27.132999 -29.114822
-4.480329 27.132999 -35.349113
-47.885391 0 -17.304211
1.4032196 27.132999 59.714085
-63.004616 27.132999 -2.6700721
41.604546 27.132999 -35.088409
41.798885 -0 43.657425
-35.699795 27.132999 11.418874
32.855118 -0 58.578568
-35.694324 -0 44.874641
47.205154 27.133001 -7.9838324
7.1429353 25.485451 -34.420265
15.765827 4.0940714 -31.740292
56.358921 27.132999 -35.198627
40.756901 -0 30.702253
58.498909 27.133001 -39.929165
-19.845356 22.103582 67.587563
-63.118813 0 1.0781907
26.194836 19.97394 24.785624
-5.0964708 27.132999 -47.418304
53.869629 10.12688 -48.124249
36.943855 18.592203 2.1458037
30.386765 0 -25.865913
37.966698 27.132999 -12.594783
-72.197113 27.132999 5.5009108
72.003418 25.029922 16.263391
36.203796 27.132999 -16.951269
-26.357319 22.845478 -65.557297
-46.07119 27.132999 20.767618
-54.604584 0 -32.009209
-12.418932 11.490584 -33.046642
-73.936737 0.99273992 3.3202839
32.732014 22.523855 -62.923531
44.195637 -0 20.997452
-13.725307 19.722765 32.579979
46.769173 15.707433 54.380219
-33.30249 14.505906 15.303432
36.631096 1.971859 5.008378
-73.785919 8.753953 -5.5715332
26.64884 8.039505 -65.452927
34.959484 14.637898 11.514696
-73.258698 2.8083804 -10.033323
-13.895233 25.503626 -32.51321
-6.3984046 27.132999 53.956715
63.1492 19.009205 36.599213
-21.693789 11.139933 28.424097
5.4703903 27.132999 -59.537739
-8.0726671 13.191978 -34.237263
-70.334755 26.162712 21.879009
0.72000945 27.132999 61.186275
-34.681999 21.844044 -61.977909
-54.582428 0 -3.5394096
15.118456 0 -67.369591
-44.034798 27.132999 14.572277
-2.349026 19.11084 70.128922
7.1113071 0 -58.053619
53.088814 27.132999 -16.853718
24.504738 10.975822 -26.291962
25.383366 25.621021 -25.532326
-45.205406 27.132999 36.163799
58.534657 0 -24.243336
-20.137594 -0 43.545746
-22.712877 27.132999 -38.848385
31.83988 0 -46.862118
59.546417 2.9502566 -41.675858
47.577045 19.403664 -53.747108
44.520687 0 -44.368366
-70.158989 25.5928 -22.365047
-14.699493 26.268185 -68.758553
40.705673 19.305904 -58.594627
-56.112476 27.132999 -19.983757
57.105644 27.132999 39.097973
-26.191725 27.132999 -33.878643
60.803841 0 -11.297155
-35.287197 27.132999 60.341709
-46.435028 0 -15.126261
26.249355 27.132999 31.010307
-52.522316 0 -39.591076
-0.59418303 27.132999 -52.922665
49.3722 0 -41.242897
-11.028227 27.132999 50.964584
0.79223174 8.201828 35.070419
-73.270424 8.1098108 9.955349
-57.381107 27.132999 -36.185646
53.527737 -0 27.452337
38.738846 -0 2.9828198
26.927988 -0 44.53466
-40.87941 27.132999 1.3983577
19.864594 7.6401544 -29.601334
1.628491 27.132999 -62.862923
-6.8519611 0 -59.597073
-14.531416 14.278075 -32.263241
-32.801765 27.132999 -49.740993
-71.28743 26.439144 18.887928
49.183975 0.18873721 -52.434441
-68.158043 0 -7.472363
-38.869953 -0 58.952595
39.644501 0 -1.7942719
29.330858 26.476545 64.421135
-64.925339 8.2883835 33.706501
-59.501038 -0 31.944845
-39.317719 22.125851 -59.444736
40.764748 -0 50.656864
-23.653654 25.008144 26.982685
-69.848557 26.104748 23.22348
-33.761005 13.567447 -14.371977
26.814449 8.0813284 24.179029
-21.816792 26.252319 67.038757
-31.839489 10.569556 -17.889713
-47.100964 27.076384 -54.128128
-30.70002 15.510813 63.837196
73.98513 23.266125 -2.342804
-32.076603 17.621384 -17.498121
-30.924099 27.132999 -50.776108
17.262724 27.132999 -67.229355
27.487156 0 -26.273573
62.731823 20.463978 -37.245033
-31.014065 27.132999 -44.814308
4.9071364 0 -43.9002
36.21014 0 -22.919159
30.415405 27.132999 -52.493523
-3.271862 27.132999 34.984066
-50.087173 8.2563314 -51.655689
-33.830818 0 -32.305546
5.1450663 23.170927 -69.988922
-57.017872 23.900864 -44.748558
-3.3098276 1.7050414 -70.085907
-7.237813 13.895161 34.401592
-36.108913 27.132999 20.783482
68.517464 14.574155 26.544327
64.341743 14.059141 -34.683002
54.17363 27.132999 4.7580948
41.084694 -0 2.3581161
27.174665 0 -45.914841
73.896744 2.326762 4.128623
35.626423 27.132999 -36.708702
37.258419 27.132999 -57.748604
73.821152 3.477726 5.1485853
13.190152 17.815441 -32.774834
-32.731747 4.9339752 16.371481
-33.300224 27.132999 -33.52964
-26.439016 12.499458 -65.528046
-18.576286 20.384041 30.340645
3.2589908 -0 54.65538
30.352833 16.137074 -20.071129
38.691277 -0 21.111664
-55.153198 27.132999 -32.123611
-42.633404 27.132999 40.262989
42.625473 27.132999 -49.657661
68.481308 -0 21.03199
-73.129066 11.197458 10.895731
19.574936 25.797506 29.770996
-21.827885 -0 35.132645
-13.909946 4.7256455 32.507431
66.293968 21.069117 -31.207607
-67.086525 0 -19.548855
36.999996 14.333795 -0.85710692
-30.232157 27.132999 -22.636459
35.074478 0 -60.421043
54.223282 -0 31.563507
28.822365 27.132999 55.257885
45.314304 -0 9.2990551
-52.209915 -0 26.953175
-30.795351 -0 39.580929
-35.291119 24.866913 -10.569678
41.494743 -0 26.379293
-22.582668 22.805635 -66.815514
-10.996782 27.132999 34.333279
50.724709 13.20287 -51.103256
59.970486 0 -10.190237
-20.728226 27.132999 49.805687
69.793198 7.8519163 23.376566
27.954628 27.132999 62.980347
-34.522697 19.272324 -62.057869
-4.6781206 0 -43.799965
-21.873827 -0 62.574089
66.537277 23.530396 30.736696
16.527571 27.132999 -33.636242
-13.500671 0 -62.688892
-53.796703 0 -47.016064
-65.660995 8.543294 32.389347
-67.066917 3.7803309 -29.697929
63.878319 14.498699 35.452957
-61.485535 1.9993259 39.066525
-42.574402 0 -57.324608
-10.140754 4.4841728 -69.494499
64.691849 -0 12.947497
-29.080681 -0 30.099571
-32.316578 -0 21.844313
36.062614 25.608814 -7.8909955
28.391184 3.1689613 -22.504976
11.62321 5.7274718 69.293015
73.916092 14.059159 3.7375116
-38.376709 27.132999 -29.580326
29.772509 14.953479 20.838715
62.27557 10.574623 37.926941
-31.908426 4.0323882 -17.777544
45.685822 27.132999 -13.849983
-30.983782 27.132999 -47.741642
-23.362061 4.953166 66.57225
42.608067 27.132999 -39.411934
-38.523685 0 -56.666008
-38.836029 0 -33.15123
32.540405 23.211704 -16.714067
48.931564 0 -43.042263
-67.841675 21.858807 -28.072317
50.858269 0 -50.542534
71.195793 10.751576 19.205229
70.190567 4.8546581 -22.277727
35.464844 27.132999 -26.158699
30.754515 17.325329 -19.516155
47.74823 0 -30.203733
-3.7515185 27.132999 -58.032181
-33.914722 23.535545 62.363041
44.209805 27.132999 -4.1938972
-36.175068 14.582969 7.4149523
9.8496284 20.904329 33.812809
7.1680584 21.51189 69.83194
13.206593 27.132999 -57.478035
33.21426 9.3061638 62.69973
-4.8500776 23.26441 70.010925
45.41534 25.73852 -55.408829
57.97374 27.132999 -40.603455
-12.081731 27.132999 -35.852455
-31.476408 27.132999 -53.599701
44.09343 27.132999 -43.644253
-36.994408 21.460096 -1.1337526
39.337807 27.132999 -34.547058
60.319786 4.2149434 40.662762
16.503033 2.06091 -31.397816
37.308186 0 -0.33538589
32.777416 27.132999 -49.05418
16.176311 0 -52.85994
-52.15654 27.132999 1.5865817
-51.544159 27.132999 -47.986427
60.628895 20.57839 40.245922
-65.090775 0 -4.778214
-34.138176 27.132999 -16.968697
-27.576567 15.691437 23.396135
27.413128 5.8815341 -65.173767
-62.218407 1.8829641 -38.009403
-26.207172 16.774242 -24.773546
11.460569 13.758942 -69.316269
-7.6048021 9.6103859 -34.329353
11.54372 3.2580557 -69.305038
32.812675 11.792158 -16.22658
-65.863823 27.132999 9.8739119
9.9380951 6.6192222 -69.521858
63.711227 9.2826748 -35.729568
-35.248531 0 -16.008718
37.381939 27.132999 33.596848
-60.137379 27.132999 -13.111008
-11.629791 27.132999 -46.281803
-41.685143 0 -10.776812
-43.530502 13.152773 -56.751549
-58.869308 5.5965695 -42.530357
-29.583487 -0 61.378166
15.686735 -0 65.232101
72.77565 12.859753 12.828716
65.76561 26.77998 32.202049
61.693596 0 -21.567759
-19.599146 27.132999 -42.443748
51.056969 27.132999 36.577106
2.2568409 27.132999 -43.788578
-35.909691 -0 33.377411
-37.448387 27.132999 50.142143
-5.6750755 0 -52.853191
67.167297 20.577795 29.487297
42.398129 27.132999 -40.321781
-45.279179 27.132999 2.5287402
-70.347015 27.132999 -7.0369663
-36.253036 4.0707603 -7.0584698
56.614777 27.132999 38.646866
-24.594364 27.132999 -65.264153
7.0005989 27.132999 56.501621
34.914886 10.222462 11.638089
-18.459248 27.132999 51.878098
73.949203 18.414076 3.0686994
8.5561323 -0 62.760468
-45.765163 27.132999 27.512619
37.465191 16.270861 60.511284
-41.090237 6.9226437 -58.35495
32.681919 9.2263498 16.460695
-46.07383 16.133327 54.908527
61.841354 4.1359196 -38.553268
35.639801 18.827076 9.4586754
-32.894432 14.659117 -62.848156
-22.818905 0 -58.578403
-59.771133 16.883829 41.392265
19.968384 15.271694 -67.555634
20.862755 17.142929 -28.977539
-73.983017 17.326042 2.3853197
-36.820923 -0 6.2137527
-4.6625137 2.6492283 -70.024918
35.712807 0 -39.27438
-53.244522 5.9838567 48.735455
-40.779057 27.132999 22.496346
-41.965153 13.316984 -57.79454
33.127892 19.808748 15.641042
-5.9904709 27.132999 -36.32457
59.930027 27.132999 2.6679182
31.954399 -0 45.278801
13.254609 2.8188846 -69.023132
38.765293 1.9220852 -59.765377
73.762253 9.1065369 -5.8556499
20.525787 13.145119 67.411011
50.111374 14.570997 -51.634819
16.665869 0 -66.212196
-24.266666 -0 49.492912
-22.596458 11.887407 66.811485
5.8378692 22.867739 34.642105
-4.6136699 -0 49.396122
9.2769756 27.132999 -56.225582
45.744019 27.132999 -1.9887071
-1.0521837 4.8131671 70.148613
-19.764677 -0 47.35128
34.734051 27.132999 34.065849
21.163294 27.032244 67.229248
-67.174881 12.614185 29.471413
40.177246 0 -10.56567
-46.144073 27.132999 -50.878979
73.911972 12.653135 3.8207119
-25.118568 0 -48.785347
47.674057 27.132999 -39.046562
-46.687794 27.132999 21.349091
65.364853 27.132999 -32.142277
38.867947 27.132999 -25.081408
-18.361341 18.044746 -67.971054
0.83705497 20.277824 -35.069763
34.870296 15.265024 11.761455
-32.592865 0.15666455 -16.62014
64.606018 27.132999 2.9451816
8.4763031 13.195011 69.694946
-8.9940701 27.132999 63.752701
-32.957123 6.7953205 -15.96796
39.331963 -0 45.167313
60.778316 -0 25.475004
32.501595 -0 24.039921
63.963493 -0 21.03318
58.901772 27.132999 -7.8070717
-35.98996 0.74652946 8.1773415
-69.22393 16.149244 24.840822
20.854069 -0 59.104771
-18.424788 11.047894 67.956161
51.825272 0 -43.161057
27.572048 13.746324 65.111389
-27.322826 16.100811 23.660246
-54.693497 -0 13.766712
-63.982731 27.132999 -23.829456
20.563641 27.132999 30.664549
46.53249 0 -9.1662693
43.549896 0 -40.040993
43.65976 5.0926461 -56.659611
-3.379467 14.047322 70.082794
11.661927 25.644201 69.286613
66.774704 0 -5.6931419
-56.967045 27.132999 -31.326324
22.756733 21.270988 -66.764771
28.856544 24.201782 21.96389
-34.092117 22.434441 13.653638
-26.760288 0 -28.775976
-3.6700697 9.9611597 70.069778
0.26761839 -0 52.475677
-45.809425 17.498343 -55.109413
-32.122566 0 -48.82412
72.565216 20.364685 -13.842781
-23.033176 -0 47.667702
5.6551213 27.132999 -63.315079
-35.03933 -0 20.676517
49.228363 27.132999 26.986778
-38.244694 11.988607 -60.067558
-35.813545 21.272526 -61.404156
-38.407463 -0 17.854788
59.269295 0 -5.524353
40.32798 8.5571356 -58.830036
-69.84478 0 -8.4025621
-27.274246 7.0613298 23.710808
-13.534134 0 -52.346096
67.192719 27.132999 5.6766715
-55.377686 27.132999 1.9273593
-62.0802 27.086357 38.208748
-19.393181 27.132999 -36.422722
9.8787613 -0 61.355778
-54.588684 27.132999 -43.754055
-4.1261368 -0 46.799461
47.058151 5.172699 54.160656
-37.008423 17.391611 -0.34138197
-37.260868 27.132999 -52.17963
-59.79932 7.3748722 41.356701
20.765247 13.548953 -29.040741
5.6641097 -0 52.649158
2.4099846 27.132999 50.361931
39.484749 -0 28.663469
27.053286 0 -57.383316
39.751209 2.4796689 59.189514
-30.692616 27.132999 -48.218655
23.890846 -0 50.341209
2.2814121 27.132999 -54.128708
-35.852909 -0 30.457214
5.4287596 -0 67.423569
20.16633 23.647779 67.504272
50.359085 27.132999 46.042446
26.957619 20.212681 65.342384
26.493845 27.132999 35.585346
-45.335709 27.132999 -45.076752
-58.429943 0.5179804 -43.079773
-41.458084 27.132999 22.737465
-55.950066 13.627972 45.933754
-13.921733 -0 37.36179
70.167351 18.703873 -22.341911
-15.371105 5.024869 -31.909565
60.606285 27.132999 2.9907608
-39.078476 -0 35.741924
37.314007 27.132999 31.010521
-47.886189 27.132999 -18.067133
60.244858 0 -0.059103154
-22.038662 8.8245831 -66.974083
12.181432 27.132999 -66.244621
26.814476 27.132999 35.316223
34.711082 15.20444 -12.172274
18.829645 27.132999 -34.955734
4.8388624 27.132999 59.477173
45.799751 27.133001 -16.419374
-11.34865 27.132999 46.563412
9.2417669 21.801298 -33.970467
-43.699921 7.1677852 -56.63105
-73.770676 6.6206598 5.7544584
-34.825451 -0 15.978517
35.002995 27.132999 60.613327
73.50737 26.559713 -8.2580881
29.152851 27.132999 -29.952103
-13.375545 22.933748 69.003128
27.345463 27.132999 33.021217
-62.176376 0.50474089 38.070023
-27.634548 -0 31.08988
-54.884106 27.132999 23.983723
10.966605 27.132999 62.350952
53.903427 0 -37.342648
73.741211 13.126905 6.1082211
13.589785 18.349863 -32.63195
50.202282 22.345726 -51.556442
27.707478 21.231699 -23.259872
-44.481998 27.132999 -53.372997
-25.066166 8.5420322 -25.80822
-28.63504 20.927151 -64.694214
-30.535414 -0 52.442211
-66.295517 16.279415 -31.20462
53.593826 27.132999 26.88287
-62.865467 20.692318 37.038242
10.972758 0 -55.68634
53.430214 0 -19.600145
18.186604 9.3017006 -30.551302
-28.985563 27.132999 62.372692
-47.845444 -0 12.82961
-35.101955 24.979666 11.12055
43.594433 -0 11.447423
-53.370773 0 -22.079622
-19.79796 13.645832 -67.599861
-34.888073 0 -27.340908
-65.129295 27.132999 11.210589
34.702065 27.132999 27.479988
12.251324 10.17432 33.10104
-9.3726244 27.132999 42.773281
36.815002 -0 51.732025
51.969181 22.25231 49.960133
-23.364826 0 -58.713501
33.8088 -0 40.659966
-57.249306 27.132999 30.861015
-34.83987 6.7438159 -11.845638
-36.608978 9.335721 -5.1555128
61.027748 27.132999 -15.679611
6.7567787 27.132999 -52.259003
-44.551727 18.691753 -56.025166
74.015633 3.3595181 0.79634899
-13.232157 3.9851429 -69.026855
39.551346 27.132999 35.404118
-67.698738 4.6505232 28.372231
-35.334782 27.132999 58.068764
-50.997013 4.4148092 -50.853127
-3.2425449 17.370886 -34.94405
-42.151482 27.132999 50.721233
-68.387871 15.222109 26.840931
16.650991 14.964518 -68.359886
-59.113884 -0 11.59323
52.485657 27.132999 -27.745777
-27.135639 22.607016 -65.278656
-33.934998 8.1174765 14.006516
47.333782 24.624353 -53.944004
-52.310616 4.8338346 49.646503
5.7314391 4.3688169 -69.945175
-0.79004842 27.132999 55.257851
60.861477 14.035738 -39.932266
0.022123715 27.132999 -51.346443
1.0007137 27.132999 58.783432
56.068718 3.254549 45.802063
21.399406 5.3732252 -67.160423
-38.166233 8.5488243 -60.113094
52.633518 18.318584 -49.332867
-27.91485 1.654146 -64.976852
-24.76556 22.987461 -26.06723
35.010227 -0 59.37077
62.070938 5.0140042 38.222115
-64.777435 -0 27.935265
-59.83506 0 -1.1844912
-50.490978 0.036109921 51.307526
-5.7683105 18.293213 -69.942429
-44.232582 -0 13.438612
38.694401 -0 13.08937
-62.782524 19.124701 -37.166588
10.279413 1.1204771 -69.475769
35.324032 14.02965 10.468351
39.860611 27.132999 -25.994438
-13.325276 19.868105 -32.726521
36.230404 1.638393 -7.1619506
73.005775 0 -0.65679777
74.004173 11.963221 1.4787458
-67.664879 0 -0.32109061
13.260914 12.648155 -69.022087
-73.275131 2.8782752 -9.924016
20.009808 -0 67.054008
-45.275101 27.132999 48.830925
47.413876 22.294117 53.879181
-73.234207 14.534703 10.196265
33.81012 0 -27.646637
-28.282248 27.132999 -59.436745
30.109314 0 -53.494049
17.710056 27.132999 38.023567
58.890427 0 -5.6606302
-50.338787 27.133001 34.358288
-17.666687 0 -47.73119
-37.867702 0 -24.938297
72.332321 3.0312183 14.910316
-16.723106 -0 58.889202
-71.672134 5.4751821 17.555893
22.924959 -0 44.803524
-59.228951 0 -30.640322
-72.065048 17.657238 16.02013
20.847429 -0 46.356819
-70.519394 1.8871226 -21.332182
17.965012 -0 50.664047
-40.255032 27.132999 -46.762596
73.155594 18.122326 10.719217
-12.467466 7.7650499 33.030891
43.901833 27.132999 11.621744
63.117867 11.725295 -36.647701
58.431171 0 -33.223289
-10.375664 27.067312 33.674805
-42.655731 27.132999 44.092819
-25.187119 27.132999 -55.788937
28.770599 27.132999 -56.2248
72.896103 12.228164 -12.174934
35.453564 16.980436 10.069526
-50.974537 27.132999 -26.246283
-13.170067 0 -57.18438
-36.484863 12.587303 5.8905387
-42.310257 27.132999 24.411016
-11.081608 12.442949 33.468933
-16.155855 8.6746922 68.472443
-52.528671 27.132999 45.2122
32.625935 23.062037 -62.972755
17.392841 15.074651 30.963007
-0.7837097 -0 48.414421
10.921416 0 -54.420692
3.2760034 27.132999 54.466728
-3.7605004 0 -69.142609
-56.514992 25.996887 -45.306725
13.698858 27.132999 62.19429
47.442379 0 -49.099052
37.239025 0 -48.478825
-40.267632 27.132999 -22.292721
36.983471 4.4934368 1.3528185
47.208206 -0 3.6963625
34.702827 10.122065 61.967457
58.964554 26.171164 42.410168
-23.76009 0 -28.121424
-70.867355 27.132999 -8.6612539
-40.788834 0 -41.044468
4.4477353 17.650494 70.034966
-5.683917 6.4631896 -69.948715
-65.810089 25.281307 -32.122395
-27.931784 27.133001 -30.280197
48.192383 21.142872 -53.249065
73.968185 10.167205 2.6850274
62.620682 27.132999 11.953859
17.643061 -0 47.418266
37.170944 -0 27.787849
42.691505 0 -19.726362
16.973969 5.9927616 31.17285
54.224747 27.132999 -27.215082
-60.985516 10.594073 -39.764999
7.8930359 19.839516 -69.756027
-65.69342 4.3153849 -32.331295
-10.60362 -0 68.841301
-73.907555 10.357767 -3.9099495
-70.607574 -0 2.808903
37.89156 0 -45.016201
1.1045287 17.053364 70.14785
-20.48027 27.132999 -51.204952
66.854118 0 -1.9661382
15.747166 27.132999 53.214478
-71.857765 26.16943 -16.8382
55.454086 23.764856 46.479115
69.285385 -0 9.2022076
53.35371 -0 36.459152
-73.888824 12.801626 -4.2883058
68.046936 27.132999 7.1968184
9.1435213 27.132999 -43.73595
-11.37322 16.517622 -69.328064
0.84630448 0 -65.68119
-12.594492 27.132999 -43.006359
54.581322 -0 29.812159
-9.0139265 -0 46.770485
25.321537 27.132999 56.693153
1.8520801 14.934834 -35.034134
67.34726 24.47584 -29.109694
-6.016386 25.027786 -34.612663
13.811676 27.132999 39.338364
49.090603 3.690738 52.514946
49.73531 27.132999 -47.360992
-0.528624 5.814744 70.156265
0.2230766 0 -58.056931
42.546543 -0 43.071632
-12.194231 24.911007 -33.119568
-22.841825 0 -50.490952
-26.53553 16.318951 -65.493492
48.804348 -0 2.440299
-45.22559 25.873491 55.545856
9.2689381 -0 51.599709
62.632843 -0 30.4491
21.714931 0 -38.664989
58.656029 3.7210066 -42.799515
-51.614243 18.750183 50.286156
-24.107754 2.467855 -26.614883
-54.426247 9.9405317 47.550297
3.1853242 23.972301 -34.948345
39.327007 0 -11.265802
16.638506 -0 44.360802
24.893185 27.132999 -33.055927
31.911289 17.16116 -17.772785
-5.9962053 0 -47.758873
1.3589625 1.7792207 70.144127
-51.084827 -0 43.015472
44.646049 19.418079 55.958073
20.237551 27.132999 -64.031631
68.534653 -0 4.9925852
-19.406565 26.559639 67.701416
-29.546915 14.686178 -21.123457
48.034824 12.405622 -53.376591
17.870689 -0 31.61128
-48.330299 -0 39.376724
-2.00559 27.132999 -38.027199
71.536369 0 -10.548696
4.0828643 -0 46.197033
16.878778 0 -53.602188
-48.033424 0 -27.481876
34.437099 27.132999 37.066624
21.565479 27.132999 64.822235
67.548141 19.863016 28.688225
35.115562 27.132999 46.100147
37.639313 27.132999 25.71946
-12.388681 0 -43.239944
42.144897 0 -24.073689
73.682816 27.133001 -0.83414584
-32.448803 13.793131 -16.878078
3.0057831 0 -56.380619
-30.068924 21.995783 20.453917
-42.785606 1.3887547 57.248291
17.116188 5.967258 -68.254128
-52.246002 -0 43.327396
50.543587 27.132999 31.121477
-64.78495 27.132999 25.887775
26.545555 3.29231 -65.489906
-33.182476 0.047482401 62.714481
-5.1686873 4.4608574 34.733673
-26.312378 15.027976 24.670549
-42.405647 27.132999 -0.76823616
33.303589 27.132999 -59.059551
51.199089 27.132999 -11.64076
-6.4081917 5.9222746 -69.894684
